ply
format ascii 1.0
element vertex 256
property float x
property float y
property float z
property uchar red
property uchar green
property uchar blue
end_header
0.020512300870047753 -0.05110377558156804 -1.1016770455820943 255 255 255
0.0753061740541384 -0.0448317051563556 -0.978652960517021 255 255 255
0.09872219711039547 -0.03549535192192821 -0.9279148470214109 255 255 255
0.09193119773450129 -0.021654883227181405 -0.9430182219899861 255 255 255
0.11103111182528241 0.04996233905369455 -0.9007061628289738 255 255 255
0.0926462523784622 -0.05176823686881359 -0.9422704867629415 255 255 255
0.07820767675143901 -0.053628104363025446 -0.9735980763942195 255 255 255
0.10990178582321337 0.08630603148389128 -0.9064220455491407 255 255 255
0.029065721615116284 -0.02995309129141718 -1.0766631630122758 255 255 255
0.08869998244639352 -0.046803333697493954 -0.9498559527587873 255 255 255
0.08062884135772592 0.0024216506107047698 -0.9675535475421694 255 255 255
-0.745498645679163 0.6366085971032354 -3.0836709592212417 255 255 255
0.12544021521343443 0.07372011780299295 -0.8689458873502095 255 255 255
0.12217512439235445 0.09325755698689968 -0.8735342387337977 255 255 255
0.10767621327719606 0.08251446120071894 -0.9079487596695149 255 255 255
-0.10932986429163306 0.033496979604056724 -1.382055628351181 255 255 255
-0.07740608349025367 -0.00677282358520706 -1.3109362289714224 255 255 255
-1.059025863134117 0.794304027182769 -3.837220952504735 255 255 255
-0.08954496627592433 0.01448885173246161 -1.3373415105483213 255 255 255
-0.9330790737911606 0.714679291842951 -3.536159562567745 255 255 255
-0.8389896158570317 0.674124598570405 -3.307584241128611 255 255 255
0.13091226155443264 0.05809038671712675 -0.8570231515771519 255 255 255
0.09892364060565341 0.021937100923173695 -0.92820803229467 255 255 255
0.09476129728700586 -0.026304601303608954 -0.9392259262245082 255 255 255
0.08298484743596328 -0.03416268643818346 -0.9620749759332676 255 255 255
0.03885563946696215 0.12944925201308566 -1.052823367682768 255 255 255
0.12754521609492953 0.04098113092853263 -0.8648331301127088 255 255 255
0.10121988397723958 -0.24491876768536103 -0.9351424686954571 255 255 255
0.027819338306904515 0.15746956721537173 -1.0755535457375835 255 255 255
-0.08721971591513239 -0.014777473903313205 -1.3319505604557043 255 255 255
-0.08478350480163159 -0.02632223906852959 -1.3265159764895356 255 255 255
0.0543290612391717 -0.043707373957872504 -1.0229239689741572 255 255 255
0.045570151533341 -0.04533909803155011 -1.0427511456618237 255 255 255
0.05817397929492973 -0.04227084825379948 -1.0190386162819702 255 255 255
0.1252681509565994 0.07346982497008464 -0.8699913921387289 255 255 255
0.1291985962810833 0.04845453837889432 -0.8616431701353187 255 255 255
0.017955511221337494 -0.031061188000469885 -1.1019698316360997 255 255 255
0.06002831016583887 0.12086399422488014 -1.00681776261804 255 255 255
-0.11505800985088906 0.021058184464667985 -1.3970435910830805 255 255 255
0.12359298916629549 0.014069990043415847 -0.8754778665111587 255 255 255
0.0918509257115332 -0.05159633594004041 -0.9440874784181951 255 255 255
0.010479747967309895 0.1656344879380892 -1.1143900153795483 255 255 255
-0.015026791638584287 -0.021088583509439617 -1.1731827169823592 255 255 255
0.1046349960357401 -0.03530690809615299 -0.9147789842351789 255 255 255
0.09847409927283791 -0.04844251461662763 -0.930099027998025 255 255 255
-0.11835284367450126 0.020840676039279204 -1.4034182918022466 255 255 255
-0.014262451522717719 -0.032929605386514564 -1.170512679058121 255 255 255
-0.0022732948992564383 -0.00777515437152107 -1.142344680101218 255 255 255
-0.03878316597445087 -0.014876711933564149 -1.2257246855280541 255 255 255
-0.07461579584963432 -0.019253299056792517 -1.3032718456476033 255 255 255
-0.014519235251171747 -0.032342530095138294 -1.1713894541964782 255 255 255
0.08330542792177972 -0.04399715549835981 -0.9612525977139205 255 255 255
0.11287858401792575 -0.02524794116604828 -0.897417085939057 255 255 255
0.09637312907598873 0.02456727122353015 -0.9335350350086581 255 255 255
-0.08967055894235257 -0.016094521095505025 -1.3371030993018609 255 255 255
0.11344834662271791 -0.23529547453748512 -0.9071090442511558 255 255 255
-0.035011986439438 -0.024575136452817288 -1.216758263044461 255 255 255
0.09410654706441361 -0.039461072508641414 -0.9386970636820525 255 255 255
-0.0013869600676744774 -0.015729912352010895 -1.1433818773124043 255 255 255
-0.0529048692555539 -0.01844750086959216 -1.2552112865600136 255 255 255
-0.1037334981192918 -0.019169752442683152 -1.3690195963563034 255 255 255
-0.0650099000631512 -0.025118172082298648 -1.2836745642971725 255 255 255
0.020589295702818894 0.16618159494464552 -1.091924634210752 255 255 255
0.10875560591294436 0.05173921954406211 -0.9073409184647497 255 255 255
0.07876331886265017 -0.03540446196322189 -0.9721038169303783 255 255 255
0.007229599233920796 -0.024503238348548412 -1.1241092687293388 255 255 255
-0.04726133906362275 -0.027540303736210366 -1.244116876882122 255 255 255
0.06706890503496743 -0.042893790201954975 -0.996134331031656 255 255 255
0.053037848616919354 0.14938431136738492 -1.021712776924822 255 255 255
0.11428106444881747 0.08798906553855187 -0.9003285447753452 255 255 255
0.11749164490753983 0.036730428040095686 -0.8868253889915307 255 255 255
-0.015989188424697067 -0.026826812765062328 -1.1743802544692235 255 255 255
0.11639309812111649 0.09569965535598765 -0.8868588566818999 255 255 255
0.12229864481386737 0.08431766839720305 -0.8747487039272465 255 255 255
-0.02455646647039386 -0.03554517226797346 -1.195194939343413 255 255 255
0.09807623581880669 -0.055511562137089465 -0.9308600308028357 255 255 255
0.09270120106054812 0.12128806438392542 -0.9368373106273791 255 255 255
0.02093389161710805 0.13983345965037372 -1.0911352159823453 255 255 255
0.08075295264332896 0.10827566049866788 -0.9641173271795289 255 255 255
0.09321708655901623 -0.02908618042839558 -0.9400146836319392 255 255 255
0.1088934694284138 0.0002491147129055211 -0.9070390656863265 255 255 255
0.12906413723844143 0.045684666743958775 -0.8620980165925256 255 255 255
0.11287323410929657 0.05176577173292123 -0.8960677910185247 255 255 255
-0.025299997943758996 0.15028531665593078 -1.194938111308982 255 255 255
0.14092860524801407 0.028902155007524893 -0.8519316951441785 255 255 255
0.11227606552652925 0.10961103903081515 -0.895518444966042 255 255 255
0.057360683620056335 -0.03205616514883226 -1.0165229316192639 255 255 255
-0.10607011647092326 -0.006896030111804093 -1.3753997846151853 255 255 255
-0.19083989753305525 0.016486186882713364 -1.5679276453874185 255 255 255
0.0385649296687474 0.14397010445268843 -1.0542411113898102 255 255 255
-0.20055823719622454 0.14868618710182702 -1.6080399137193777 255 255 255
0.013819377143436154 -0.044889783088393365 -1.111995243351384 255 255 255
-0.05563415655707861 -0.03772665574996526 -1.2627909480317814 255 255 255
0.0013611875726799538 0.1748312521832076 -1.1333400440934873 255 255 255
0.12665673019699256 0.0366343990918905 -0.8669049184939837 255 255 255
0.04972459215262401 -0.03648464723344081 -1.033780088064727 255 255 255
0.03913714486196889 0.12875672425278611 -1.0527745231236996 255 255 255
0.00884220855506057 -0.040427973421771235 -1.12170457172551 255 255 255
-0.6502643706129796 -0.4577993577991368 -2.5969906289245923 255 255 255
0.11515379841860089 0.03258497397203162 -0.8916035066276295 255 255 255
-0.09715499162482569 0.14398626049827093 -1.3680110045921143 255 255 255
-0.009712308710511633 0.17874981994712053 -1.1583381332279854 255 255 255
-0.019462094694069593 0.1543600009693125 -1.1810322579913557 255 255 255
0.06045337244798208 0.12226889019690967 -1.0058832408927931 255 255 255
-0.1144553331081893 0.13374547166755904 -1.3989246327516396 255 255 255
0.04256776799637791 -0.039450898992653256 -1.049333327695444 255 255 255
-0.09007938940783392 0.007193410517180611 -1.3402158459024596 255 255 255
0.12240640837893318 0.09352325868475513 -0.874149252686473 255 255 255
0.03580919131758108 -0.04160011679594789 -1.0630989826518766 255 255 255
-0.05802443823539659 0.04920169617901136 -1.2690952035159968 255 255 255
0.08406046609700239 0.00173739890059977 -0.9592383533075418 255 255 255
-0.6358247255551354 -0.45324906442483753 -2.562937602885805 255 255 255
0.09618706768842714 0.11374010481639554 -0.9288195366041861 255 255 255
0.10683223212910684 0.10653943667263989 -0.9070237054033373 255 255 255
-0.11660009995971948 -0.025739062756446704 -1.3975820554721758 255 255 255
0.06668701298610459 0.14152727657970285 -0.9922674351556362 255 255 255
0.11060515277843072 0.12003102097521999 -0.900088023038022 255 255 255
0.06123982104076254 -0.04911345307105637 -1.009524342190433 255 255 255
0.08634027482667236 0.1321679515482196 -0.950781064741021 255 255 255
0.030274431984311796 0.11525493975940725 -1.0712178932962446 255 255 255
0.19720969566320498 -0.05203694761416621 -0.746687332355833 255 255 255
-0.040533284165518255 0.18971982177568836 -1.2284830531133994 255 255 255
0.027575223431050733 -0.04399900245928567 -1.081129425590832 255 255 255
0.07182685661802257 -0.0515987193842773 -0.9863792562052337 255 255 255
0.02277146948632715 0.13201497502582044 -1.0885513396702873 255 255 255
0.045055007564109836 0.1433682930850126 -1.0384501260071661 255 255 255
0.12436060902718929 0.025778238609282193 -0.8717780680434037 255 255 255
0.05312774702940718 -0.05258221469544502 -1.0271536965870303 255 255 255
0.06579921515741509 -0.056009013815105875 -0.9999779690990771 255 255 255
-0.08903186111737271 0.0577176714645441 -1.3350113154575611 255 255 255
0.11222444072197153 -0.23612933322721516 -0.9098794339478928 255 255 255
0.07361433243400878 0.11929215529192266 -0.9783387005752755 255 255 255
0.051591143058690246 -0.04428593432798035 -1.0289837267281468 255 255 255
-0.6128322333221259 -0.44727730295063844 -2.5085349686929814 255 255 255
0.0652069633819005 0.13273099021287857 -0.9962801442685602 255 255 255
0.037727472293812785 -0.03258669360603441 -1.0600406252655266 255 255 255
-0.015150159744103593 0.16847043389631194 -1.1720871313032457 255 255 255
0.006667686415353396 0.13913122453883067 -1.121972772202226 255 255 255
0.010640453386948443 0.17781083687089566 -1.1128908347776874 255 255 255
0.11732769468172939 0.11061203618459957 -0.8852800882843816 255 255 255
0.12732159122219033 0.08620911898235215 -0.8636702485892218 255 255 255
-0.11960331539397977 0.06859764954659091 -1.407052877174315 255 255 255
0.03855028834831972 0.1570884846003114 -1.0529389164903842 255 255 255
0.021441597649287963 0.1376630064947852 -1.0901716560167234 255 255 255
-0.24802380719717637 0.038960476760920924 -1.6960400528472117 255 255 255
-0.17949197394098093 0.1543278200198955 -1.5560315285706 255 255 255
-0.06073136821192156 -0.030832881796548535 -1.2761149079191814 255 255 255
-0.02164983653795996 0.19054183861445534 -1.185181325466173 255 255 255
0.13218622472962915 0.08389127695242776 -0.8531727065835272 255 255 255
-0.11035431745998218 0.07483404015067895 -1.3853791917555278 255 255 255
0.05303658646623018 -0.043006149678106086 -1.0262187644076526 255 255 255
-0.009078490134518006 0.14121368131924675 -1.160450444000984 255 255 255
-0.0068169910341223435 0.08140316491927593 -1.1549640985334393 255 255 255
0.0004553201399537088 0.15118815966166715 -1.1392173411281554 255 255 255
0.05704512061156856 -0.07040321749687804 -1.0214060895798547 255 255 255
-0.049196129031994745 0.2005332693991195 -1.2454722156552438 255 255 255
0.03953761451976912 0.1569755197019523 -1.0507604584057317 255 255 255
-0.1399050201443382 -0.01833553677949232 -1.449608767230733 255 255 255
-0.09078283238921973 0.05682646393529298 -1.3405355536311165 255 255 255
-0.09204413042346596 0.07221383014510784 -1.3448693642528788 255 255 255
-0.07773444560070587 0.03948665136471706 -1.311767126351729 255 255 255
-0.12853712309828635 0.0940529214593175 -1.4305241721177981 255 255 255
0.019897365739730673 0.15338956128288947 -1.0925002873002303 255 255 255
-0.08341192180754485 0.061851445938971926 -1.324991005196186 255 255 255
0.03888553250128187 0.1438871974720953 -1.053815064693352 255 255 255
-0.17186724561771233 0.15331648369505269 -1.528232869131414 255 255 255
-0.16523400597787555 0.043931929206448936 -1.5105035194494063 255 255 255
-0.3249861714199712 0.0019025466746765843 -1.8828391862712517 255 255 255
0.10365740433699872 0.11563961211234786 -0.9150161154293925 255 255 255
-0.12636214419189626 0.12771601576850494 -1.4337765914194345 255 255 255
-0.229269218213976 0.09371473820373122 -1.6620836162798944 255 255 255
-0.27301946336180094 -0.035410923447221625 -1.7792963545321576 255 255 255
0.03479683729116143 0.14889491881851757 -1.0623746332514232 255 255 255
-0.20624041380110944 0.0753346920866132 -1.6044534619837838 255 255 255
0.032356974066603705 0.16835619951634972 -1.0669217538279239 255 255 255
-0.150818011489824 0.08121881992940538 -1.4806942605710234 255 255 255
-0.1339328716801443 0.05805319494319823 -1.4399061467443548 255 255 255
-0.17706754474972405 0.14768850482146476 -1.5457359757503033 255 255 255
0.16620365578550725 -0.08778444123413541 -0.8031830396773406 255 255 255
0.04637985445426778 0.15909771107927073 -1.0354992380610004 255 255 255
-0.034743358248859914 0.1792358355815914 -1.2162656311581965 255 255 255
0.12763241296542757 0.09301275577759603 -0.8625000760053665 255 255 255
0.07665148455380762 0.1283097109694425 -0.9708342929394989 255 255 255
-0.1544572107517358 0.08127011124966409 -1.4903462627999569 255 255 255
-0.7452430320939398 -0.46895806195880774 -2.7876475141478516 255 255 255
-0.20693060935590069 0.12682407917451177 -1.6140975651875313 255 255 255
-0.057046006960672295 0.08264583994869631 -1.2673890223701922 255 255 255
-0.2260972199878861 -0.007551969065676402 -1.6460774940037772 255 255 255
-0.07706226672904794 0.07435796086719834 -1.3111732840463994 255 255 255
-0.24828359151035442 0.03943702848645989 -1.6973673593281227 255 255 255
0.14198924131675292 -0.16143223987248267 -0.8522433208501548 255 255 255
-0.216409630435802 0.017740978802660658 -1.626784478398018 255 255 255
-0.26948454450499937 0.001051451993263463 -1.7580407364884296 255 255 255
-0.0005148792176044321 -0.01197192245016388 -1.1418285328942825 255 255 255
-0.07838064794823263 0.15217317160048638 -1.3128297890084777 255 255 255
0.05606962336839517 0.13859172972862846 -1.0157091977460129 255 255 255
-0.12380446319494688 0.15246130172355116 -1.4197840417798708 255 255 255
-0.06609995548340931 0.1916888132760088 -1.284960987283624 255 255 255
-0.14296818667410263 0.06186930359406948 -1.4713795273374843 255 255 255
0.07004798146467535 -0.0593585260238747 -0.9918870544299476 255 255 255
-0.7472742721274602 0.6177613397745145 -3.0817583235461883 255 255 255
0.12146577712196087 0.013255150900798178 -0.8788711529261419 255 255 255
-0.09651727764754868 0.1894658575019082 -1.3598317255407693 255 255 255
-0.002229323002674811 -0.030095257150065263 -1.1451663927954285 255 255 255
0.08576950272489729 0.13363930823789463 -0.9515494056407207 255 255 255
0.10908387568817676 -0.014393479957843491 -0.9049385014064679 255 255 255
0.0018322457829854164 0.16385751741086838 -1.1337929522942294 255 255 255
0.07274858160764226 0.13179409897429864 -0.9802230872366828 255 255 255
-0.0932065558670768 0.16839126742935356 -1.3506303581881025 255 255 255
-0.14668574724187797 0.11577682831319204 -1.4672021911202202 255 255 255
-0.045323473488001524 0.17674144076714365 -1.235459296954604 255 255 255
-0.21283559407809854 0.13509045813462414 -1.62377742857364 255 255 255
-0.18892546600325072 0.2080928415073041 -1.5354857295284408 255 255 255
-0.23199725003493804 0.057779746708035595 -1.6609809345939577 255 255 255
-0.005669303844362797 0.11266978912363688 -1.1485352292880424 255 255 255
-0.7259250591472511 -0.44617282089504234 -2.7401068517242573 255 255 255
0.061966957353568386 0.14897406322158122 -1.001940999019826 255 255 255
-0.07576292608504905 0.16817341551216802 -1.3088368629705618 255 255 255
-0.12394870306455953 -0.014706532141989546 -1.4132920909045887 255 255 255
-0.5902565400879083 -0.4478072426524435 -2.4611359021964447 255 255 255
-0.13706203021262223 0.15694446978905496 -1.4522272791162112 255 255 255
-0.05923827192412005 0.19279200542449787 -1.2719408339358624 255 255 255
-0.08498735896180724 0.17622938468892527 -1.3288789997041623 255 255 255
-0.20837635672496205 0.09229371843195469 -1.6087127864836217 255 255 255
-0.09886673254459696 0.06535495960997556 -1.3612947118845578 255 255 255
-0.10524496920202941 0.09377128601614121 -1.3735473448569522 255 255 255
-0.09026863633925175 0.2040131346825921 -1.34020757045043 255 255 255
-0.06664072826867172 0.1557886535928223 -1.2863142476362495 255 255 255
0.11721978186489163 0.08610520475248902 -0.8920521531079236 255 255 255
-0.24342229742474752 0.004319398911696767 -1.6857717682297109 255 255 255
-0.006366292066698069 0.16016341941459042 -1.1530604234834054 255 255 255
-0.17123539982434405 0.12670217139083625 -1.5346319155398018 255 255 255
-0.16817000808836752 0.10045264590477589 -1.520134653361428 255 255 255
-0.14000572929410798 0.08142886069386478 -1.454889157149501 255 255 255
-0.3055618788242264 -0.0009791265783245862 -1.8477208581050206 255 255 255
-0.0044850770562902854 0.14248070240808194 -1.1544947674053352 255 255 255
-0.07915338796870386 0.07576266437548675 -1.3159583727811786 255 255 255
-0.08854744789990616 0.04928898238702557 -1.3342640189985902 255 255 255
-0.13488971127193475 0.10400733579095581 -1.4486706569753383 255 255 255
-0.07150440839834063 0.1753255164406972 -1.2958307289532685 255 255 255
-0.17237453744147527 -0.011224232639779917 -1.5235069069347356 255 255 255
-0.18752774670015407 0.046633529218213815 -1.5593346251275826 255 255 255
-0.006163123515762968 0.07986837144007204 -1.1532530102186715 255 255 255
0.06603767434812977 0.14100779888534007 -0.9990824466496383 255 255 255
-0.18995674755209616 0.09522941990061469 -1.5690104610024946 255 255 255
-0.12271901592373369 0.1290313351087975 -1.4217693799858189 255 255 255
0.20422258573151408 -0.00959201189695486 -0.7289639644503388 255 255 255
-0.13478821221918963 0.11025259222178596 -1.441202825268385 255 255 255
-0.24761706572415426 0.02355584790652449 -1.6961156979968541 255 255 255
-0.212142624315476 -0.015785251035791908 -1.6144688810134125 255 255 255
-0.05310029445548684 0.14750538617211417 -1.2562385590562148 255 255 255
-0.0013086528609369383 0.15331817249179627 -1.1413191321210683 255 255 255
0.08045727876649984 0.10619412800336861 -0.96441330629847 255 255 255
0.19873041801023292 -0.03934965120695643 -0.7365027234587669 255 255 255
-0.238699973185879 0.07171498668074781 -1.6755894029543044 255 255 255
-0.025504836832023956 0.16043893238936824 -1.1946972595241698 255 255 255
